ncols         50
nrows         50
xllcorner     90.48
yllcorner     25.46
cellsize      0.020400
NODATA_value  -9999
164.7301 162.8252 165.1831 167.8091 162.5375 162.5376 167.9776 165.5423 161.8316 164.8677 161.8497 161.8428 163.9659 157.5002 158.0652 161.5531 160.2015 164.1827 160.5159 159.0031 167.6369 162.5627 163.4426 158.9658 161.6069 163.5728 159.7870 164.3671 161.4381 162.3649 161.4349 168.7968 163.1995 160.0669 165.7076 159.5775 163.8666 157.3610 159.2554 163.8306 165.4554 163.7541 162.8931 162.3367 158.8044 161.0805 161.8581 166.4114 164.2709 157.9509
157.7380 155.6105 154.7349 158.6007 159.8587 159.5596 154.2481 155.8381 157.7595 159.6923 155.3282 156.2087 153.4467 153.1771 159.2033 160.8344 156.5497 159.7763 157.8506 154.8304 157.8499 161.3798 156.6582 161.4596 148.9065 159.2314 157.0269 155.8687 157.0410 150.8030 156.1067 157.8371 161.1994 155.2109 154.3402 155.2604 159.5119 157.7520 155.1764 158.3055 157.0569 159.6716 154.6596 155.7827 155.5894 152.3752 157.6541 157.5489 156.7811 156.0620
146.0453 149.0295 149.2633 147.8846 149.8076 151.5036 155.9500 150.8152 151.0641 150.0681 144.5351 150.2119 150.4721 157.6812 149.7143 151.1961 150.1873 146.7854 153.7199 152.5472 152.6645 147.5633 154.4998 146.0859 152.0520 156.8628 147.3198 148.5925 150.5904 148.7810 145.6394 150.4971 147.1045 151.7122 147.5332 154.9412 147.9417 149.3252 152.7320 146.5988 150.9738 154.2129 145.4690 150.8453 151.0711 152.6369 146.5806 146.3301 151.8573 151.1824
144.5686 144.8565 141.7771 144.5139 144.6964 141.6741 149.4145 145.2386 140.2432 145.7868 140.8931 146.1784 147.2929 141.3551 146.7073 145.0555 146.2833 149.5075 143.0810 141.5559 141.1486 141.3697 143.5858 144.8406 144.6472 146.2987 143.8561 148.1777 143.0232 151.9777 145.6941 141.2457 140.6045 145.2646 143.1468 145.9591 145.2369 143.5987 141.2768 139.2726 142.4776 146.3863 144.4594 140.0799 144.3367 144.9731 141.1656 144.2783 143.9918 140.3882
138.4162 139.0252 140.5920 140.5043 133.2098 134.5294 138.8880 138.8842 138.8880 148.9011 139.0555 140.7496 140.2049 139.2970 136.3970 139.6198 135.0244 136.6324 135.8868 137.5885 144.2868 131.7411 139.4016 132.5047 135.9271 140.6097 137.5357 134.1096 135.1969 139.3817 135.1518 137.9922 137.4796 135.3881 143.7747 139.2446 131.2674 137.9022 135.3575 139.9002 134.9653 136.9986 138.8578 139.9401 133.7420 136.3394 135.9180 135.3829 142.6392 138.5578
127.0859 133.6222 137.2350 133.9660 126.3105 129.4159 134.6693 128.7456 132.2000 133.1925 128.0878 130.6900 121.1448 127.7954 130.1109 127.1252 135.7658 126.5781 129.5484 131.2608 135.1924 126.5610 134.3581 130.8993 127.9240 132.2549 131.4658 129.0679 131.0780 129.7126 131.2091 132.8550 135.6266 127.1551 137.2677 125.0123 130.4132 132.6335 131.7115 129.0005 130.2442 129.3896 129.1005 133.4174 131.9396 128.7898 133.5674 131.7905 133.3072 132.7575
121.9073 122.7137 126.6362 126.2254 124.3316 124.7463 128.2273 122.6196 126.0356 123.7877 123.7412 127.6906 126.8705 126.8348 128.3107 124.4573 126.4401 123.4635 125.3668 124.0039 124.6853 126.1798 121.9396 130.6714 121.3762 120.7517 127.8686 126.7693 126.2666 126.2793 124.3575 121.7025 124.6217 122.3628 127.3196 123.9531 121.9178 123.4301 125.6331 122.7031 121.9276 125.1253 125.1292 122.8735 122.9812 125.0904 120.0500 120.1719 122.2390 123.7539
118.8527 122.3461 120.4930 117.4402 117.8630 114.9124 117.8645 117.0540 118.8882 115.4383 119.4780 122.5182 117.5937 119.1251 119.9904 116.7163 118.5923 117.9578 118.2130 115.6010 117.9935 119.4140 122.2734 120.7978 124.3795 115.6180 120.5370 118.4700 124.4894 115.4951 115.4008 116.1218 111.5483 116.3427 115.6426 118.3712 118.9453 123.5485 120.7713 116.1893 115.2248 119.3958 113.9593 123.4144 121.4583 116.5125 112.7806 121.9816 117.5764 121.6334
106.6624 109.6476 111.4614 111.5867 110.0955 113.3143 108.2429 111.0186 111.8066 112.9890 113.5806 108.0718 106.8434 115.2787 112.4427 109.2003 116.0992 111.7927 114.9836 111.6483 117.6280 116.7117 110.6988 114.3604 113.3818 115.5516 108.5509 113.5039 114.6210 106.1695 107.8959 105.3280 110.6375 113.5983 115.9528 111.6680 116.3316 107.3054 106.3356 111.2791 112.5979 111.3476 105.2434 111.1784 107.5323 113.4547 112.5455 108.6261 109.9041 108.2681
104.7834 107.8369 102.0143 106.4836 103.3807 102.5928 104.6503 101.8657 103.3105 101.3778 110.8656 105.0772 102.8723 105.6134 104.6344 104.3085 106.8139 107.2440 103.3799 103.2440 104.1463 98.0657 100.4259 109.0721 109.9063 104.2243 106.7011 105.9052 114.2081 108.3302 104.5877 102.1048 100.1521 105.5818 102.7024 100.7047 103.0317 101.7268 110.0329 107.6163 104.9475 109.4113 105.2035 102.3876 109.5408 106.5882 101.8597 104.4004 102.3446 100.8230
101.2757 104.2254 94.3014 100.1861 96.5452 97.0358 96.7200 95.9052 98.6427 96.0043 99.3085 98.3464 97.7803 95.7745 96.7668 100.7633 99.9999 95.5645 98.7667 100.5967 93.2081 99.7203 95.9761 99.5496 95.4219 92.1708 92.5767 97.4774 97.9861 94.3678 98.9248 92.1507 97.0632 93.7545 95.5582 97.7821 95.1848 96.7386 101.0373 96.4139 100.7779 95.0078 100.0866 102.8218 91.0822 96.1065 100.2284 97.8880 99.6106 96.6852
92.2826 91.5558 95.5262 92.7861 93.0357 90.7872 90.5600 90.7252 93.2062 90.7599 92.8922 98.2491 94.6362 91.0448 95.6265 90.7986 85.9085 88.9986 86.3524 90.6528 91.5052 96.2218 91.9158 90.0203 92.9084 83.5293 90.6121 91.9604 84.9546 92.5642 90.0020 87.9981 91.3998 96.5710 90.5619 91.0184 89.1531 88.2391 93.5371 88.7353 91.7757 90.3854 93.4598 93.0238 95.1355 90.4928 91.2132 89.0866 90.6900 93.1548
87.8195 82.7821 88.1574 89.6155 86.7889 91.1790 83.2272 81.8146 80.2124 90.0367 87.5117 85.3818 86.3885 82.1721 92.8858 85.9362 85.8768 87.7259 86.9039 85.7439 82.3121 85.7092 89.5521 87.5536 87.9082 81.2063 79.3824 81.5851 81.7410 84.4677 75.8867 85.9414 81.2674 80.8495 79.4826 77.9430 85.7658 83.9050 80.2039 80.5772 83.8438 90.2470 84.7698 81.0391 84.8113 84.7304 77.4579 85.3857 84.8558 87.6372
84.6212 82.4540 78.2676 75.7547 86.7944 79.2519 79.1161 79.0019 79.6685 78.6412 77.3533 77.4337 78.9760 77.4440 76.9357 79.3936 78.3094 83.5863 71.0041 81.7116 81.6553 71.1769 75.8490 75.2428 71.6146 72.9837 71.4654 79.5340 76.5642 77.0519 75.1066 70.0744 72.4079 75.9696 71.3551 77.6805 75.3405 75.4570 79.2343 78.9542 77.0585 82.1393 75.8311 80.9221 80.8536 78.1456 80.0527 75.3209 81.8464 78.5196
71.0318 75.7470 70.4870 68.3746 67.9301 74.4180 68.7587 77.8644 66.3542 77.6894 73.2331 72.3099 70.9652 73.7974 72.4871 75.9099 72.9427 73.0509 71.3623 71.6311 72.0740 65.3689 65.8036 71.4267 69.0582 67.3424 67.2984 67.6346 64.3213 62.9544 65.5066 62.6352 67.4463 61.7650 70.6115 69.5931 69.5946 72.4259 75.1255 73.8234 65.9090 68.2441 70.7255 72.6783 74.1530 70.4228 73.1603 70.3339 70.7654 68.3800
63.3560 62.0707 63.1981 69.2866 63.2775 74.0229 67.6057 66.6802 63.5506 68.2266 64.3988 66.4917 73.8060 65.8375 69.5735 64.0162 66.0207 71.4381 64.0684 70.6041 66.5075 61.9143 64.7164 64.9543 63.1195 55.7609 57.5077 58.1640 57.9007 59.2035 57.4296 53.6730 59.6022 61.0759 61.7060 64.0515 64.0934 63.7517 62.9462 58.9564 66.0106 66.1274 66.9405 62.2955 62.8825 69.2852 66.0070 68.1702 66.2107 66.2150
62.4663 58.1033 59.9398 58.2646 58.3479 58.7239 60.3178 58.2152 63.4187 56.9676 59.0908 58.3322 63.9924 60.2411 62.7470 55.1947 60.4526 62.3203 59.6922 61.7280 56.0659 60.9320 62.6869 53.7879 52.6261 57.4090 56.8737 49.6526 49.0469 48.5483 44.8407 47.0319 47.6892 49.3120 52.4252 54.1456 59.0083 52.2755 59.1374 56.4562 57.8636 60.9502 56.2833 60.7987 60.1508 61.1288 60.5189 67.0173 57.7382 58.0584
51.3077 51.5107 51.2650 56.7442 57.4387 51.4649 50.6801 54.5914 51.5205 55.0759 53.7859 48.6299 57.8197 58.5648 51.3388 52.0140 54.0347 54.1805 54.9171 57.9270 50.3205 47.4114 44.6233 45.5234 46.5717 51.0097 43.0281 44.2073 42.4416 45.0110 48.4323 40.3040 41.4733 47.1192 47.0775 51.6170 48.8737 47.0891 50.9840 53.5832 53.7636 53.8691 56.3772 56.6850 57.3236 55.1233 52.6758 53.6173 56.7967 50.7263
47.8089 45.5228 46.7891 50.5382 47.2762 46.8422 42.6233 48.9416 48.6393 53.1926 45.7795 47.3603 47.4510 51.4352 46.4170 47.5399 48.5265 47.2627 45.0983 45.8435 47.3058 39.8291 42.1312 38.4556 42.9647 33.6337 35.3502 36.9822 39.3708 33.3007 31.1634 39.6488 30.8377 29.7616 38.8544 37.2045 36.8233 43.1884 42.9711 41.7238 40.7515 48.3861 48.6535 46.4053 52.2428 43.4926 42.1263 44.6271 46.5661 47.4329
39.5049 41.2847 36.4740 44.5599 39.9821 43.5805 41.2567 41.5988 41.9379 41.5717 42.1567 44.2160 40.8181 42.3556 39.9594 44.5489 38.1994 45.6314 39.8397 34.4775 37.9638 34.3459 37.7207 32.0505 31.4795 25.9591 29.0804 21.9753 23.3049 29.1475 28.5468 28.6561 25.6692 29.6173 30.9400 28.6661 37.8417 37.1540 35.0493 36.9832 38.7181 33.1581 39.4870 38.1826 37.2237 39.3853 45.6216 42.1511 38.5150 41.9463
44.0748 42.6506 40.0556 37.9359 41.9714 41.0572 42.5623 41.7823 43.0254 38.2710 43.8289 40.4695 46.1025 37.8092 45.0846 40.4705 37.9225 38.4251 38.6769 39.8513 39.0883 34.7396 35.3285 40.7693 38.4660 33.5333 31.2793 30.4663 30.8876 24.9196 26.6136 23.4391 30.7016 32.5046 30.1726 37.4032 30.0630 30.4062 36.5318 40.0588 43.0284 37.6590 43.1128 39.7612 39.3589 42.5277 41.8337 35.1476 44.3064 44.0170
37.8319 40.8960 41.1907 40.4906 38.0577 37.6937 39.6319 43.2268 41.3394 38.5967 42.0237 31.1629 43.1549 34.4894 38.6212 36.3496 35.8245 43.1911 38.0963 39.6111 37.5030 38.1470 36.0186 31.0113 36.9213 31.5234 27.4071 29.8647 34.7235 31.8441 27.7199 28.6459 29.6566 37.7795 33.6229 34.6950 37.4236 35.9769 35.4112 36.5271 37.8292 38.8601 41.8915 39.8644 41.9065 39.4664 39.9445 33.7140 42.4576 40.7480
42.5344 30.8516 45.8055 39.1216 42.8650 36.4207 41.3787 36.3802 37.6691 45.2825 38.9684 40.1927 42.1506 41.0275 39.9917 40.6353 46.7507 39.3676 39.9641 41.7162 41.0843 40.5323 38.0908 31.9491 39.4818 30.3460 33.8964 29.9291 31.2029 31.5851 31.1100 32.2082 36.5801 33.8961 32.5996 37.0209 38.4936 32.0389 38.3104 39.4183 37.2186 43.0350 39.0902 39.9171 39.0212 39.5871 36.2516 35.2203 44.3239 36.9995
36.3981 32.9121 37.4554 35.4030 44.2983 42.4017 37.3078 46.1296 42.3175 38.3978 31.8740 46.2451 35.2035 34.4360 42.4400 46.6915 43.5251 41.0640 41.0065 41.1172 40.1685 38.0700 36.8737 35.7081 32.9687 33.7233 28.8212 32.9398 29.6037 28.5935 32.0656 36.3672 35.6114 28.8103 31.2181 37.6746 32.5701 35.5089 38.4983 34.6084 38.4948 34.8419 37.5681 40.3316 34.5933 40.6937 39.3133 41.0297 40.0440 43.4647
39.5798 37.9159 39.5710 40.8340 39.3507 39.3259 37.0981 37.2154 34.9963 44.4528 35.4725 37.1254 37.0489 41.8889 38.3192 42.9473 37.1836 40.0411 36.5776 44.9851 34.4529 38.4111 38.8490 37.6551 35.3238 34.9562 34.9431 33.8366 36.6353 39.8412 31.2335 29.3306 33.7092 42.2471 32.6310 40.4934 41.1431 34.9832 38.8850 42.5972 37.1086 38.1693 37.4590 36.1598 37.2562 35.5323 39.3063 36.8942 39.9054 34.5364
40.0286 41.5365 33.0547 40.1581 42.7189 35.4070 44.0536 40.2930 36.9209 38.8686 40.7109 39.2639 40.6522 36.2739 39.5440 34.7948 38.7022 36.3242 36.7385 42.2507 41.4136 39.5643 34.0572 35.9822 40.1680 36.5511 42.6812 36.5005 35.4939 33.5877 34.6867 34.2314 37.2158 38.3644 33.5390 32.3060 31.1938 38.6291 34.1978 31.4520 39.4791 46.1951 39.0177 41.5514 39.2814 38.7392 41.7931 38.1651 39.8381 40.0010
36.8635 41.8439 38.3429 36.6005 40.4773 36.1724 38.9523 38.8404 42.1254 40.2918 38.7927 41.3211 43.0384 40.5412 38.8988 34.9322 35.6724 37.9521 36.9780 37.9742 38.4336 39.5812 37.5092 38.9087 37.3712 30.9799 33.8168 35.9311 32.4628 37.6202 40.2584 39.5938 35.5687 40.9527 37.1980 36.0122 35.4547 36.6589 36.6733 38.6205 38.8624 38.6613 40.1786 42.4397 41.7164 34.4131 31.2060 41.6707 34.7671 38.1935
35.1893 33.2937 40.3240 40.9771 36.9701 30.9265 37.0609 39.8750 34.2629 39.2497 38.6537 40.4375 39.0583 35.7804 42.2893 38.2240 38.6177 35.8998 37.3381 35.8734 37.8688 43.3825 33.9915 33.1263 42.2403 37.0587 35.5392 40.5260 35.4492 42.6039 39.0799 35.7226 43.7985 35.6496 39.8332 38.6450 41.7925 42.7120 38.2637 36.0476 39.8280 36.5551 44.7398 39.1092 37.6036 39.2536 34.6582 35.7847 42.3008 36.7289
35.3907 40.1414 42.0885 40.6883 41.5196 36.2610 34.2660 43.0354 37.5634 37.7789 42.5160 40.2001 39.8991 45.0264 36.6009 41.3149 38.7025 39.3372 43.1148 40.0440 40.1265 41.7202 37.3989 35.9672 35.3415 32.5679 44.6267 35.1395 37.7764 37.6008 39.3484 40.8823 41.0255 36.7037 37.9605 39.3186 37.7337 43.3107 39.9705 40.7111 40.5041 42.0448 39.0745 34.6409 39.7305 36.5774 36.9456 40.2905 42.2463 38.5952
39.2898 43.4699 39.0855 46.1683 40.0598 33.0810 40.6233 39.5067 42.2325 40.3828 37.9479 34.6904 37.7362 35.8117 36.6217 40.1290 43.3730 39.5473 34.7756 39.6971 41.9532 36.5339 37.9612 38.4073 36.0086 40.3081 38.0004 39.6219 35.7008 37.0509 40.5304 37.2448 43.5442 37.1644 39.0373 41.1610 34.1082 33.0808 33.7863 42.1510 36.7077 46.0379 36.6705 38.9169 42.9896 44.3815 44.5478 41.9884 41.4355 40.1408
40.5302 36.5415 35.7405 38.1850 37.6845 36.8354 40.2843 41.0610 38.4603 42.6277 34.7700 37.6141 36.0446 32.5955 37.9471 37.8299 42.7355 40.0875 35.1225 43.7574 41.8582 39.9414 37.5156 35.3168 37.0785 41.4613 43.8489 42.8248 36.7286 34.8362 38.6178 32.8898 39.1646 37.7523 36.7970 33.4110 39.7359 36.5970 34.6854 29.5783 38.1126 43.5119 43.1789 36.8238 36.3885 39.6014 35.1999 39.1005 40.4933 41.8759
37.7265 37.4159 35.3930 35.5463 37.3475 39.1290 40.7677 35.6174 42.5050 37.2136 37.9628 35.7853 30.7542 40.6791 40.2375 37.1830 38.2279 39.5748 33.3393 36.4398 40.4097 34.2641 38.9076 33.9572 39.4262 37.9200 33.1815 41.5212 35.8232 35.5962 38.6286 41.4729 34.9795 38.2120 39.3134 40.1063 38.5563 36.9259 35.5442 38.2854 34.8105 29.2629 39.3366 40.7387 30.9381 34.9977 39.8844 44.1994 38.0893 35.8429
37.3101 41.9834 35.9209 35.4612 36.4105 34.9988 38.2268 42.7328 38.8280 37.1017 36.9833 33.1692 40.5081 37.6253 37.3173 47.4381 38.7550 35.6034 36.5797 41.3041 38.1986 33.5439 40.6165 35.8543 43.4787 41.0989 36.5168 41.7018 38.0623 40.4171 39.3130 35.3197 35.9281 40.9487 36.8544 36.6478 34.9934 39.1296 44.0464 34.6562 37.9314 42.0954 37.6199 39.2159 34.6716 39.1437 37.2973 40.8160 41.4209 45.6275
39.4295 38.6680 38.2738 36.6311 38.7061 36.8044 38.1960 41.6434 34.6710 41.1102 41.6420 37.3364 31.3250 35.8671 41.5816 37.6220 34.6927 36.1763 40.2125 39.3308 36.9738 36.5901 36.5153 34.9234 42.5367 36.7237 41.3421 42.2546 40.6855 36.3958 38.9018 37.6180 34.9795 38.6637 34.1535 41.2537 36.2968 38.2941 38.5405 36.9139 39.4507 36.2659 40.3045 33.6527 38.0698 43.5074 34.6896 35.6574 39.2323 38.2294
38.5743 38.9900 39.4266 40.8515 38.7519 36.7987 39.5402 43.2221 37.1245 34.5989 40.8437 37.1613 31.0044 40.0647 35.9165 37.2508 38.5184 38.0939 39.6508 36.2160 39.0618 36.7438 39.7389 39.3686 34.7161 40.7804 35.9146 39.9466 38.6243 43.0370 36.8521 36.4745 37.4642 36.6129 39.9223 32.6735 34.3614 34.3190 40.3734 42.6543 37.2091 37.0160 37.7326 41.0081 34.7404 38.2376 40.4480 39.0257 38.0912 40.5256
31.5303 41.6736 37.6778 34.1481 41.1736 43.7610 39.2277 42.4986 44.4768 43.5847 44.5599 41.8664 39.8663 34.8341 38.9018 37.1103 46.1528 39.1123 40.0096 41.2945 39.7708 44.7252 37.7721 40.2238 37.4126 35.6799 37.8047 39.5289 38.3521 37.5627 35.4210 39.3907 35.1258 41.9202 39.8873 35.2673 38.7124 37.3835 40.5975 43.6614 34.0145 39.9851 39.1596 41.6540 40.2796 37.3841 38.6828 37.2519 42.8680 39.7039
53.5836 47.6980 45.7548 43.3389 42.4706 43.1276 48.6814 49.4062 43.1364 50.5651 46.4308 48.3204 52.7167 50.5705 47.0744 45.2064 41.4246 45.7225 47.2466 44.9185 47.4862 48.1106 47.2054 45.9300 48.3860 49.2058 44.6088 52.1128 47.5842 47.9365 50.0046 48.5796 50.7394 48.7414 46.0427 48.9645 44.4488 48.2057 47.7803 47.2556 47.4944 42.2345 46.2338 48.1585 48.3596 44.7970 51.6771 45.2815 50.7884 49.1616
54.1813 61.4459 52.5391 58.8775 59.1217 54.1081 60.2974 55.3699 56.9861 56.9010 55.7171 58.5524 58.5005 50.8744 60.0330 51.1325 59.2176 59.5001 52.8471 54.8876 52.8029 55.4752 55.1959 58.4590 60.0509 60.3071 54.4335 55.4923 51.0697 53.7024 59.0146 60.9667 52.4170 54.3426 56.0408 56.9605 53.6912 57.3922 54.6985 56.0766 57.7589 56.1393 54.8108 55.7912 55.8549 55.0100 55.3436 60.9159 57.8028 55.2336
66.4509 63.3585 67.8794 65.4689 64.0381 65.7032 59.6474 60.9797 60.7782 64.7888 69.5575 71.0539 66.2742 65.8625 58.9568 62.7320 61.9966 62.4975 63.8556 62.9437 58.4221 66.6037 61.1418 65.0777 70.5822 61.6018 56.7691 63.5020 67.6629 70.2350 60.6714 65.8501 62.9641 64.0422 72.2930 59.8511 65.1212 65.7631 67.6174 64.6539 65.2842 63.1851 65.1674 63.3304 66.2247 63.2512 65.4913 64.2722 67.7382 64.2058
67.2809 76.3858 69.8828 70.6387 70.8130 76.7233 66.1930 82.0132 75.7682 73.2697 72.4353 73.4567 74.1634 74.5356 74.2668 72.8687 72.0080 72.1462 72.0153 76.0013 74.3807 63.7788 74.5677 73.1842 72.5439 71.4344 75.9723 75.4426 70.2814 73.8212 69.6850 68.4611 70.7198 75.1872 75.4594 74.1393 74.7753 74.1485 70.6756 73.8958 75.0012 74.8629 76.1667 74.7249 73.6543 75.8105 72.5204 69.9544 72.1108 70.3653
78.8145 80.4064 78.4627 79.9161 75.1592 81.4799 80.8436 78.3887 82.8177 83.6527 76.0173 78.5518 78.5326 78.0203 83.3284 80.2585 80.0465 74.8284 82.7463 77.1222 81.0198 81.6721 84.9220 76.9135 71.7815 81.3915 86.2415 84.5568 81.4690 79.3651 83.2614 77.9194 82.2691 82.3564 84.0206 89.1190 82.0172 79.3131 80.7633 75.5328 78.7559 79.6122 79.2677 81.2971 78.3727 84.2031 80.8406 80.8121 79.8563 81.3056
91.5553 86.4786 87.1057 88.1688 85.0424 86.6222 87.6513 91.7032 89.8677 89.6608 91.6327 88.6679 90.2514 88.7703 89.8761 87.3317 81.7635 88.6772 93.3482 91.8586 91.9762 92.7884 89.3460 89.6719 87.2270 88.1318 90.9273 92.6917 88.6617 87.7294 89.0816 90.8836 84.7484 82.1915 87.4284 85.4179 87.5556 88.6367 87.7203 93.4374 90.0602 89.9814 90.9466 85.6635 92.1973 88.8527 91.0914 85.8644 84.4187 91.5337
98.4492 94.6138 94.7110 100.6963 93.7518 102.2480 94.6181 99.2352 96.3341 99.1296 95.6877 96.8316 97.4428 94.3134 99.5425 95.7804 96.6342 94.3370 89.6330 96.7469 104.5578 99.6738 97.2622 96.5313 97.3874 98.9614 93.7776 100.6630 99.4661 99.4746 98.6354 97.3788 99.3386 99.0954 96.2579 95.5992 97.6256 101.9671 93.6027 92.9174 97.8143 97.4727 97.8400 98.0519 96.6504 101.7896 92.5173 94.8345 97.0102 92.3904
105.0324 110.5444 105.6227 106.2521 101.7795 103.7109 104.4344 104.6069 109.4049 107.2331 102.2256 106.2995 107.0547 108.9804 110.3016 102.5147 103.1274 101.7873 104.8579 106.9591 108.5220 105.3321 104.6005 106.0153 103.0546 111.8286 100.7370 106.1142 111.6308 105.5804 104.9899 104.4877 105.0188 109.6785 98.9244 110.1603 101.2881 104.7600 104.2723 107.3257 100.7656 106.9465 111.6329 101.4705 106.1291 103.5741 106.8377 105.6174 103.6355 107.0236
119.2130 113.2273 115.9593 109.9202 110.9307 115.2172 118.2523 114.8668 112.8608 113.7979 110.0488 115.6135 116.4470 112.4437 112.3899 114.5976 112.4898 113.6016 120.0992 113.0589 112.7250 111.8574 116.0326 113.2563 111.8519 117.7639 118.0588 111.9987 108.2004 116.8225 111.7461 116.1719 107.8897 116.4778 110.1665 115.9923 113.8428 110.9382 112.5789 115.8590 114.1177 115.5532 119.7293 109.1073 118.6516 114.1131 111.1036 109.8091 113.2326 116.5650
121.6574 126.5735 117.6865 122.0037 118.2828 123.1309 124.7007 120.7777 114.2274 122.6368 123.3502 123.2529 125.7473 118.8268 124.0806 125.6175 116.7042 122.9990 120.5275 121.7954 123.0830 120.5783 120.0129 122.1425 118.7783 118.7825 124.0781 118.5936 124.0389 123.4278 116.8626 120.0073 125.6223 119.0965 120.6468 123.4262 124.3902 121.2854 120.2475 126.3071 127.2567 124.9766 122.2960 119.6152 119.5487 123.6075 123.2952 126.2448 123.9914 117.5308
133.4358 127.2858 129.1281 131.0306 136.2670 139.6098 132.1002 129.7304 131.8835 132.9430 129.3180 135.6656 130.9702 131.7732 132.2778 131.5448 132.7968 128.4282 128.6051 126.9795 131.5985 132.6168 131.6533 135.3035 130.2632 132.2862 127.0049 129.1187 132.3666 132.8273 129.3981 130.0652 125.7264 129.2089 132.9511 132.0056 131.7820 130.4293 130.3012 128.2990 132.3765 131.5429 131.7561 128.7019 123.8200 133.5715 128.8435 127.6917 132.3604 129.1040
141.6998 140.3710 140.5707 134.4221 142.1558 139.3038 137.4122 138.9502 133.1913 139.7460 135.4319 134.4620 133.9529 141.8581 136.6322 143.1212 136.9126 133.3979 135.1704 142.2274 138.0523 136.8751 139.0001 140.0253 141.8722 142.8655 137.4407 134.5419 137.2796 139.3008 135.6287 135.6485 139.5514 138.3740 138.6184 136.2445 137.8288 135.7473 141.1906 141.6257 132.9814 135.7315 134.0304 136.5699 138.2697 134.1711 135.7544 135.5081 139.1418 138.7280
144.5948 147.2905 145.1200 145.9450 151.7804 150.7814 142.8613 149.2492 149.1942 143.3152 149.2163 151.3738 143.3924 144.0075 149.8130 147.5745 148.4144 147.7818 147.9321 142.7806 149.9020 150.2688 146.0718 146.6296 142.1667 148.3028 148.4762 146.5734 150.1331 145.7578 148.4538 143.7010 146.6893 146.2369 147.4359 145.6514 146.3656 149.2381 145.4497 141.9403 152.0088 150.9044 142.8832 148.8291 145.2511 147.5505 147.6427 146.0568 144.4087 144.6884
152.2514 152.5045 154.7985 152.8527 157.0462 159.4617 153.2598 155.7182 156.4991 156.4160 155.2279 157.2280 156.4467 151.2870 157.6075 157.6619 152.7101 155.1138 157.0500 154.3721 158.2189 162.0916 152.6420 150.8569 155.9115 157.1647 154.3074 159.3598 150.9842 157.0788 153.1824 160.1581 160.9775 152.7000 153.3513 157.5788 153.8386 154.8638 155.0762 149.2410 154.9585 152.9308 153.5206 159.3309 151.2305 157.4396 154.1631 154.1607 157.3711 156.0202
